# .PCD v.5 - Point Cloud Data file format
FIELDS x y z normal_x normal_y normal_z curvature
SIZE 4 4 4 4 4 4 4
TYPE F F F F F F F
WIDTH 731
HEIGHT 1
POINTS 731
DATA ascii
0.030802 0.003823 0.042381 0.901947 0.129216 0.412062 0.000000
0.019491 0.009338 0.057370 0.499676 0.379343 0.778732 0.000000
0.021319 0.024720 0.035740 0.699094 0.709626 0.087746 0.000000
-0.016332 -0.018111 0.012026 -0.430063 -0.604832 -0.670242 0.000000
0.022682 -0.008195 0.011449 0.700558 -0.379344 -0.604415 0.000000
-0.003132 -0.022131 0.009580 0.001023 -0.604833 -0.796352 0.000000
0.018063 -0.014133 0.055686 0.499675 -0.379344 0.778731 0.000000
0.024291 0.018691 0.043530 0.724343 0.604831 0.330918 0.000000
-0.012356 -0.011073 0.005290 -0.259789 -0.379347 -0.888035 0.000000
-0.005482 0.015202 0.061238 -0.262070 0.379344 0.887365 0.000000
0.004747 0.022070 0.056529 0.223595 0.604831 0.764320 0.000000
0.011299 0.021715 0.054482 0.430062 0.604832 0.670243 0.000000
0.009161 0.000514 0.064034 0.278420 0.129218 0.951727 0.000000
0.010573 0.027630 0.019106 0.332199 0.790326 -0.514810 0.000000
0.016748 0.026036 0.022784 0.557936 0.790325 -0.253166 0.000000
0.020445 -0.003126 0.008218 0.537656 -0.129219 -0.833204 0.000000
-0.022735 -0.020629 0.042396 -0.725190 -0.604831 0.329058 0.000000
0.000548 -0.031524 0.026201 0.000169 -0.991270 -0.131846 0.000000
-0.016764 -0.021003 0.015273 -0.601620 -0.604832 -0.521759 0.000000
-0.006576 -0.023635 0.012148 -0.172025 -0.790325 -0.588043 0.000000
-0.013577 -0.007178 0.004426 -0.535513 -0.129218 -0.834583 0.000000
0.006574 0.027192 0.050178 0.330877 0.790325 0.515662 0.000000
0.024171 -0.020786 0.037294 0.783841 -0.606198 0.134601 0.000000
-0.001191 -0.032179 0.034913 -0.000169 -0.991270 0.131846 0.000000
-0.020481 -0.007508 0.057123 -0.537656 -0.129219 0.833204 0.000000
-0.006781 0.019563 0.008125 -0.223595 0.604831 -0.764320 0.000000
-0.006827 -0.018532 0.007752 -0.223595 -0.604831 -0.764320 0.000000
-0.004591 -0.027935 0.017347 -0.172026 -0.790325 -0.588042 0.000000
-0.027112 -0.016278 0.025392 -0.871301 -0.476885 -0.115824 0.000000
-0.023031 -0.000651 0.055694 -0.750801 -0.129219 0.647765 0.000000
-0.030814 -0.007180 0.026243 -0.976744 -0.129713 -0.170719 0.000000
-0.029116 0.014340 0.030630 -0.910587 0.380685 -0.160968 0.000000
0.017300 -0.009400 0.007564 0.501674 -0.379346 -0.777445 0.000000
0.000630 -0.012284 0.062611 -0.001190 -0.379344 0.925255 0.000000
-0.012293 -0.020152 0.011276 -0.430062 -0.604831 -0.670243 0.000000
-0.017855 -0.023020 0.019003 -0.462867 -0.790325 -0.401422 0.000000
-0.019362 -0.009351 0.057173 -0.501676 -0.379344 0.777444 0.000000
0.002088 -0.024777 0.053431 -0.000788 -0.790325 0.612687 0.000000
-0.012607 0.028004 0.021699 -0.462868 0.790324 -0.401423 0.000000
-0.003761 -0.018588 0.006889 0.001023 -0.604833 -0.796352 0.000000
-0.002813 0.019279 0.059032 -0.001026 0.604833 0.796352 0.000000
-0.021511 0.021890 0.022274 -0.724343 0.604831 -0.330918 0.000000
-0.025288 -0.005638 0.052084 -0.750803 -0.129217 0.647763 0.000000
0.013530 0.012453 0.059677 0.499674 0.379345 0.778732 0.000000
-0.022550 -0.019251 0.045336 -0.725190 -0.604831 0.329058 0.000000
-0.020740 -0.023425 0.025115 -0.557285 -0.790325 -0.254599 0.000000
0.015881 0.013066 0.008172 0.501675 0.379346 -0.777444 0.000000
0.012067 0.018491 0.056899 0.430062 0.604832 0.670243 0.000000
-0.018232 0.027264 0.033667 -0.588987 0.800756 0.109014 0.000000
0.010612 0.008716 0.003546 0.262070 0.379344 -0.887365 0.000000
0.027311 -0.001067 0.050668 0.749134 -0.129214 0.649694 0.000000
0.030446 0.007713 0.041912 0.976777 0.129710 0.170532 0.000000
0.020187 -0.019773 0.048248 0.601620 -0.604832 0.521759 0.000000
-0.004267 -0.031262 0.025404 -0.108390 -0.922481 -0.370514 0.000000
-0.000562 -0.002274 0.000983 0.001276 -0.129217 -0.991615 0.000000
0.031687 0.004315 0.029593 0.981549 0.129262 -0.140898 0.000000
0.007326 0.001474 0.064440 0.278420 0.129218 0.951727 0.000000
0.000974 0.028553 0.016745 0.000497 0.922481 -0.386042 0.000000
0.007132 -0.004297 0.064040 0.278421 -0.129218 0.951727 0.000000
0.005191 -0.029770 0.022002 0.209312 -0.922481 -0.324372 0.000000
0.029705 0.012181 0.029507 0.921049 0.348422 -0.173986 0.000000
0.023310 -0.009089 0.012738 0.700558 -0.379344 -0.604415 0.000000
0.029435 -0.007483 0.022001 0.903004 -0.129216 -0.409741 0.000000
0.030505 -0.005267 0.022965 0.976913 -0.129736 -0.169736 0.000000
0.027432 -0.013228 0.022805 0.842572 -0.379345 -0.382321 0.000000
-0.024695 0.015733 0.018739 -0.841587 0.379346 -0.384484 0.000000
-0.000684 0.032540 0.036620 0.037019 0.991270 0.126543 0.000000
0.012680 -0.002211 0.062701 0.278420 -0.129216 0.951728 0.000000
-0.020788 0.011898 0.054805 -0.700557 0.379344 0.604416 0.000000
-0.004555 0.022077 0.056586 -0.225560 0.604833 0.763741 0.000000
0.009919 -0.030541 0.030119 0.351545 -0.922481 -0.159515 0.000000
0.029460 0.013116 0.030087 0.921049 0.348422 -0.173986 0.000000
0.008241 0.028028 0.017821 0.173536 0.790325 -0.587599 0.000000
-0.002947 -0.016167 0.060983 -0.001023 -0.604833 0.796352 0.000000
-0.015664 -0.021121 0.014141 -0.601620 -0.604832 -0.521759 0.000000
0.016279 0.020024 0.052813 0.430062 0.604832 0.670243 0.000000
0.006445 -0.024047 0.012664 0.173539 -0.790325 -0.587598 0.000000
0.001025 -0.024655 0.053587 -0.000788 -0.790325 0.612687 0.000000
0.029139 0.000339 0.047114 0.901948 0.129215 0.412061 0.000000
0.006974 0.007820 0.002355 0.280865 0.129218 -0.951009 0.000000
-0.012468 -0.000636 0.003066 -0.278420 -0.129216 -0.951728 0.000000
0.019412 -0.018458 0.050667 0.601620 -0.604832 0.521759 0.000000
0.020726 -0.024681 0.031211 0.591535 -0.796500 -0.125201 0.000000
0.004372 0.031457 0.024574 0.109344 0.922481 -0.370234 0.000000
-0.018581 0.021331 0.048923 -0.602960 0.604831 0.520211 0.000000
-0.028015 -0.002401 0.048774 -0.903004 -0.129216 0.409741 0.000000
0.032278 0.001651 0.035285 0.987072 0.073351 0.142511 0.000000
-0.030733 -0.010111 0.028004 -0.976744 -0.129713 -0.170719 0.000000
0.024887 0.019893 0.039858 0.789318 0.598968 0.134961 0.000000
0.027183 0.007179 0.049251 0.901948 0.129215 0.412061 0.000000
0.017461 -0.019612 0.051580 0.601620 -0.604832 0.521759 0.000000
0.023919 0.003812 0.011900 0.750802 0.129216 -0.647765 0.000000
-0.000209 -0.023526 0.055041 -0.000789 -0.790325 0.612688 0.000000
0.003983 -0.030121 0.043564 0.108391 -0.922481 0.370513 0.000000
0.027022 0.010954 0.019107 0.842573 0.379345 -0.382320 0.000000
0.027521 -0.003154 0.049604 0.901947 -0.129217 0.412061 0.000000
0.020621 -0.022361 0.022169 0.725190 -0.604831 -0.329058 0.000000
-0.012996 -0.010450 0.060744 -0.501676 -0.379344 0.777444 0.000000
-0.023804 0.000358 0.054965 -0.750802 0.129217 0.647765 0.000000
0.014274 0.028186 0.041989 0.557285 0.790325 0.254598 0.000000
0.021054 0.022787 0.043128 0.724343 0.604831 0.330918 0.000000
-0.007284 -0.003823 0.064065 -0.280865 -0.129217 0.951009 0.000000
0.028238 0.014589 0.026385 0.913979 0.379983 -0.142322 0.000000
0.015429 -0.019886 0.013055 0.431785 -0.604830 -0.669136 0.000000
0.002941 0.002685 0.065080 -0.001276 0.129218 0.991615 0.000000
-0.017621 0.024300 0.020186 -0.462868 0.790324 -0.401423 0.000000
-0.028696 0.015225 0.030699 -0.869165 0.480934 -0.115132 0.000000
0.024854 0.006068 0.052614 0.749136 0.129214 0.649691 0.000000
0.024886 -0.018597 0.042989 0.783841 -0.606198 0.134601 0.000000
0.005229 0.032250 0.032917 0.136984 0.990567 -0.003643 0.000000
0.026159 -0.017627 0.039941 0.783841 -0.606198 0.134601 0.000000
0.008683 -0.027348 0.047756 0.330876 -0.790324 0.515663 0.000000
0.020186 0.008749 0.008843 0.501674 0.379344 -0.777445 0.000000
0.003372 0.031001 0.042900 0.108391 0.922481 0.370514 0.000000
-0.024037 0.021730 0.038325 -0.699157 0.709689 0.086723 0.000000
-0.009770 -0.030563 0.029831 -0.362943 -0.923777 -0.122101 0.000000
-0.020566 -0.005556 0.008661 -0.535513 -0.129218 -0.834583 0.000000
-0.020726 -0.016533 0.014659 -0.601620 -0.604832 -0.521759 0.000000
-0.032208 -0.004945 0.033526 -0.976913 -0.129736 0.169736 0.000000
-0.015394 -0.015631 0.056668 -0.501674 -0.379346 0.777445 0.000000
-0.005624 -0.027603 0.048837 -0.173539 -0.790325 0.587598 0.000000
0.001092 -0.010750 0.063240 -0.001188 -0.379346 0.925254 0.000000
-0.024102 -0.009982 0.014211 -0.699000 -0.379344 -0.606215 0.000000
-0.009094 0.026497 0.016415 -0.330876 0.790325 -0.515662 0.000000
0.023643 0.019454 0.043553 0.724343 0.604831 0.330918 0.000000
0.007184 0.021953 0.010135 0.225560 0.604833 -0.763741 0.000000
0.027498 -0.008810 0.047465 0.841587 -0.379346 0.384484 0.000000
0.008708 -0.031213 0.034720 0.351133 -0.922481 0.160418 0.000000
0.013176 0.004665 0.003758 0.280864 0.129217 -0.951009 0.000000
-0.023847 -0.006205 0.053640 -0.750803 -0.129217 0.647763 0.000000
0.017870 0.020831 0.050324 0.601620 0.604832 0.521759 0.000000
0.009362 -0.019477 0.009247 0.225561 -0.604830 -0.763743 0.000000
-0.007266 0.031750 0.028217 -0.291643 0.922481 -0.252928 0.000000
0.023919 0.021984 0.036030 0.782146 0.606621 0.142330 0.000000
0.023504 0.022230 0.027510 0.699157 0.709689 -0.086723 0.000000
0.028578 0.015885 0.033481 0.869165 0.480934 0.115132 0.000000
-0.007075 -0.017434 0.059089 -0.225561 -0.604830 0.763743 0.000000
0.021548 -0.024160 0.034254 0.597332 -0.792380 0.123809 0.000000
-0.029446 0.012511 0.028169 -0.910587 0.380685 -0.160968 0.000000
0.031315 -0.008481 0.030459 0.910605 -0.380764 -0.160678 0.000000
-0.010002 0.026460 0.016942 -0.330876 0.790325 -0.515663 0.000000
0.002766 0.023234 0.056036 -0.001023 0.604831 0.796353 0.000000
0.016587 -0.006160 0.059842 0.535513 -0.129218 0.834583 0.000000
-0.018054 -0.025334 0.025159 -0.557285 -0.790325 -0.254599 0.000000
-0.001343 0.030436 0.021144 -0.108389 0.922481 -0.370513 0.000000
-0.015715 0.027445 0.041138 -0.557936 0.790325 0.253166 0.000000
-0.023099 -0.018145 0.019896 -0.724342 -0.604832 -0.330918 0.000000
0.014532 -0.024391 0.017864 0.463897 -0.790325 -0.400232 0.000000
0.030943 -0.004510 0.041089 0.976744 -0.129713 0.170719 0.000000
0.020931 0.007018 0.009076 0.750802 0.129216 -0.647765 0.000000
0.032020 -0.002979 0.029936 0.976913 -0.129736 -0.169736 0.000000
0.002201 -0.007674 0.001690 0.001276 -0.129217 -0.991615 0.000000
0.014422 0.025212 0.047748 0.462868 0.790324 0.401423 0.000000
-0.017828 0.002013 0.006271 -0.535513 0.129218 -0.834583 0.000000
-0.004091 0.026850 0.051032 -0.173539 0.790327 0.587596 0.000000
0.011839 -0.001006 0.063110 0.278421 -0.129218 0.951727 0.000000
0.023498 -0.020977 0.040352 0.783841 -0.606198 0.134601 0.000000
0.002068 0.012768 0.003412 0.001191 0.379346 -0.925254 0.000000
0.006375 0.003421 0.064454 0.278421 0.129216 0.951727 0.000000
-0.004326 0.021362 0.008831 -0.223595 0.604831 -0.764320 0.000000
0.031380 -0.005289 0.038725 0.968505 -0.209779 0.134131 0.000000
0.006671 0.027213 0.016261 0.173536 0.790325 -0.587599 0.000000
-0.014956 0.011111 0.059421 -0.501675 0.379346 0.777444 0.000000
0.023946 -0.015466 0.048580 0.699000 -0.379344 0.606215 0.000000
0.004919 0.030583 0.043443 0.208478 0.922481 0.324908 0.000000
0.020146 0.018989 0.016211 0.602960 0.604832 -0.520210 0.000000
0.027097 -0.017667 0.034302 0.783841 -0.606198 0.134601 0.000000
0.031876 0.005958 0.035005 0.967646 0.214269 0.133229 0.000000
-0.030585 -0.001210 0.043485 -0.903004 -0.129216 0.409741 0.000000
0.018068 -0.024182 0.044506 0.462867 -0.790325 0.401424 0.000000
-0.006697 0.024205 0.053819 -0.173535 0.790325 0.587599 0.000000
-0.015972 0.024470 0.018621 -0.462868 0.790324 -0.401423 0.000000
0.004742 0.004525 0.001212 0.001276 0.129217 -0.991616 0.000000
-0.023157 -0.011878 0.014308 -0.699001 -0.379346 -0.606213 0.000000
-0.018992 -0.002708 0.058827 -0.537656 -0.129219 0.833204 0.000000
-0.011168 0.029461 0.041676 -0.292292 0.922481 0.252179 0.000000
-0.010406 0.019639 0.056788 -0.225556 0.604830 0.763744 0.000000
0.024354 0.020160 0.040706 0.724343 0.604831 0.330918 0.000000
0.021648 0.004834 0.009472 0.750802 0.129216 -0.647765 0.000000
0.031318 -0.001814 0.025008 0.976913 -0.129736 -0.169736 0.000000
-0.007478 -0.004822 0.002174 -0.278422 -0.129218 -0.951727 0.000000
0.028802 0.011675 0.023747 0.842573 0.379344 -0.382321 0.000000
0.017172 -0.025447 0.023570 0.557936 -0.790325 -0.253166 0.000000
-0.026005 -0.007652 0.050850 -0.750803 -0.129217 0.647763 0.000000
0.029286 0.012929 0.028788 0.921049 0.348422 -0.173986 0.000000
-0.027078 0.000118 0.014870 -0.749134 -0.129215 -0.649694 0.000000
0.021735 0.012538 0.012737 0.700557 0.379345 -0.604414 0.000000
0.017418 0.027033 0.039353 0.599644 0.791982 0.114851 0.000000
0.031668 0.001539 0.026915 0.981549 0.129262 -0.140898 0.000000
0.008979 -0.013148 0.005191 0.262069 -0.379346 -0.887365 0.000000
0.026392 -0.006267 0.015364 0.750801 -0.129219 -0.647765 0.000000
-0.031340 0.008311 0.035202 -0.981549 0.129262 0.140898 0.000000
-0.009870 0.029074 0.044542 -0.209312 0.922481 0.324373 0.000000
0.006206 -0.029662 0.022350 0.209312 -0.922481 -0.324372 0.000000
-0.024858 0.019778 0.025770 -0.782146 0.606621 -0.142330 0.000000
-0.017472 -0.027281 0.031651 -0.474409 -0.878720 -0.052797 0.000000
0.030543 -0.010166 0.035115 0.914143 -0.379843 0.141641 0.000000
0.002304 0.031638 0.041626 0.108389 0.922481 0.370513 0.000000
0.018232 0.021641 0.017075 0.602960 0.604832 -0.520210 0.000000
0.013559 -0.004567 0.062031 0.535513 -0.129218 0.834583 0.000000
0.005353 -0.029917 0.022379 0.109344 -0.922481 -0.370234 0.000000
0.008995 0.027262 0.017522 0.332199 0.790326 -0.514810 0.000000
-0.002899 0.012873 0.003448 0.001191 0.379346 -0.925254 0.000000
-0.020785 -0.021014 0.045986 -0.725190 -0.604831 0.329058 0.000000
-0.022113 0.013231 0.052432 -0.700557 0.379344 0.604416 0.000000
0.002362 0.022160 0.056851 -0.001023 0.604831 0.796353 0.000000
-0.011090 -0.024963 0.049865 -0.332198 -0.790326 0.514809 0.000000
-0.022255 -0.023315 0.035321 -0.702399 -0.706439 0.087065 0.000000
0.018725 -0.019250 0.015498 0.602960 -0.604831 -0.520210 0.000000
-0.005433 0.023693 0.054881 -0.173539 0.790327 0.587596 0.000000
-0.026983 0.007906 0.016583 -0.901947 0.129216 -0.412062 0.000000
-0.014991 0.022386 0.051499 -0.431784 0.604830 0.669136 0.000000
0.022301 0.023991 0.033807 0.699094 0.709626 0.087746 0.000000
0.010719 -0.024696 0.015527 0.332198 -0.790326 -0.514809 0.000000
0.016307 0.026741 0.042021 0.557285 0.790325 0.254598 0.000000
-0.026979 0.017185 0.039656 -0.783590 0.606353 0.135361 0.000000
0.000700 0.032868 0.032395 0.037344 0.991270 -0.126447 0.000000
-0.005041 0.022033 0.009571 -0.223595 0.604831 -0.764320 0.000000
-0.028055 0.015291 0.038955 -0.913979 0.379983 0.142322 0.000000
-0.026266 -0.002101 0.014375 -0.749134 -0.129215 -0.649694 0.000000
0.001576 0.004450 0.001198 0.001276 0.129217 -0.991615 0.000000
-0.030263 -0.000143 0.044531 -0.903004 -0.129216 0.409741 0.000000
0.028143 0.011467 0.022089 0.842573 0.379344 -0.382321 0.000000
0.019768 0.025093 0.040459 0.599644 0.791982 0.114851 0.000000
-0.003235 -0.030208 0.043565 -0.109341 -0.922481 0.370234 0.000000
0.030559 0.009287 0.038923 0.925857 0.350241 0.141845 0.000000
0.009824 -0.016888 0.058715 0.223595 -0.604831 0.764320 0.000000
0.021918 0.012681 0.013040 0.700557 0.379345 -0.604414 0.000000
0.026138 -0.017810 0.026681 0.781956 -0.606750 -0.142825 0.000000
0.029077 0.013690 0.029375 0.913979 0.379983 -0.142322 0.000000
0.000154 -0.010532 0.063328 -0.001188 -0.379346 0.925254 0.000000
0.001272 -0.020877 0.008634 0.001023 -0.604833 -0.796352 0.000000
-0.026605 0.017974 0.027678 -0.782146 0.606621 -0.142330 0.000000
-0.023399 0.021676 0.040073 -0.788096 0.598040 0.145782 0.000000
-0.026451 0.015583 0.022435 -0.841587 0.379346 -0.384484 0.000000
0.006356 -0.020060 0.057220 0.223595 -0.604831 0.764320 0.000000
-0.012440 -0.005121 0.003667 -0.278422 -0.129218 -0.951727 0.000000
0.018559 -0.005279 0.058713 0.535512 -0.129217 0.834583 0.000000
0.011972 0.016028 0.058936 0.499676 0.379343 0.778732 0.000000
-0.027031 0.016210 0.024322 -0.841587 0.379346 -0.384484 0.000000
-0.023863 0.017775 0.046154 -0.725190 0.604831 0.329058 0.000000
0.013959 0.025804 0.047118 0.462866 0.790325 0.401424 0.000000
-0.031543 -0.007049 0.034815 -0.968675 -0.209816 0.132840 0.000000
-0.020938 -0.012962 0.012428 -0.699000 -0.379344 -0.606215 0.000000
-0.011417 0.030014 0.039364 -0.292292 0.922481 0.252179 0.000000
-0.013539 0.027891 0.022550 -0.462868 0.790324 -0.401423 0.000000
-0.024640 0.008560 0.013677 -0.749136 0.129215 -0.649691 0.000000
-0.021599 -0.013282 0.013390 -0.699001 -0.379346 -0.606213 0.000000
0.005699 -0.026517 0.015767 0.173535 -0.790326 -0.587597 0.000000
-0.012345 0.029728 0.027630 -0.351133 0.922481 -0.160417 0.000000
0.025400 -0.014565 0.046380 0.841587 -0.379346 0.384484 0.000000
-0.028018 0.011828 0.043871 -0.842573 0.379344 0.382321 0.000000
0.018657 -0.018999 0.015127 0.602960 -0.604831 -0.520210 0.000000
0.028097 0.007594 0.047120 0.901947 0.129216 0.412062 0.000000
-0.004585 -0.030048 0.022474 -0.108391 -0.922481 -0.370513 0.000000
0.003052 -0.005949 0.064583 -0.001276 -0.129217 0.991615 0.000000
0.005770 -0.009616 0.063302 0.259789 -0.379346 0.888035 0.000000
0.001513 0.030603 0.044403 -0.000497 0.922481 0.386042 0.000000
0.032331 -0.002117 0.031617 0.987736 -0.068825 -0.140145 0.000000
-0.024011 -0.003883 0.053913 -0.750803 -0.129217 0.647763 0.000000
0.006406 -0.030802 0.025738 0.292292 -0.922481 -0.252179 0.000000
0.030811 0.007635 0.026537 0.981549 0.129262 -0.140898 0.000000
-0.001547 -0.025922 0.051949 -0.000788 -0.790325 0.612687 0.000000
-0.003563 0.000533 0.065351 -0.001276 0.129218 0.991615 0.000000
0.029004 -0.008152 0.021233 0.842572 -0.379345 -0.382321 0.000000
0.015351 -0.002667 0.061176 0.535513 -0.129218 0.834583 0.000000
-0.031776 0.002861 0.037164 -0.981549 0.129262 0.140898 0.000000
-0.008957 -0.030956 0.030393 -0.351133 -0.922481 -0.160418 0.000000
0.013085 -0.009634 0.004958 0.501676 -0.379344 -0.777444 0.000000
-0.026110 -0.017783 0.027096 -0.790342 -0.594023 -0.149987 0.000000
0.001055 -0.031845 0.028734 0.037344 -0.991270 -0.126447 0.000000
0.029433 0.010945 0.024335 0.913979 0.379983 -0.142322 0.000000
0.003143 0.002487 0.065106 -0.001276 0.129218 0.991615 0.000000
0.004467 0.003261 0.065006 -0.001275 0.129217 0.991616 0.000000
0.015175 0.028539 0.038919 0.557284 0.790325 0.254599 0.000000
0.000710 0.032048 0.039976 -0.000169 0.991270 0.131846 0.000000
0.014715 0.024295 0.049216 0.462866 0.790325 0.401424 0.000000
-0.021428 0.016392 0.014799 -0.699001 0.379344 -0.606214 0.000000
-0.003917 0.009184 0.064098 -0.001190 0.379346 0.925254 0.000000
-0.024044 -0.001737 0.054303 -0.750803 -0.129217 0.647763 0.000000
-0.015851 0.011060 0.058869 -0.501674 0.379344 0.777445 0.000000
0.030795 0.008481 0.039331 0.976777 0.129710 0.170532 0.000000
0.006724 -0.030735 0.025735 0.209312 -0.922481 -0.324372 0.000000
-0.027683 -0.002282 0.016522 -0.901947 -0.129215 -0.412062 0.000000
0.009427 0.025014 0.051687 0.330877 0.790325 0.515662 0.000000
-0.018640 0.024890 0.042667 -0.557936 0.790325 0.253166 0.000000
-0.016208 0.025938 0.021782 -0.462868 0.790324 -0.401423 0.000000
-0.022985 0.022268 0.039830 -0.725190 0.604831 0.329058 0.000000
-0.004701 -0.025272 0.013799 -0.172026 -0.790325 -0.588042 0.000000
-0.022594 -0.001582 0.056015 -0.750801 -0.129219 0.647765 0.000000
-0.006596 0.031943 0.028819 -0.119924 0.991270 -0.054788 0.000000
0.023089 0.010310 0.012909 0.700557 0.379345 -0.604414 0.000000
0.002226 -0.003709 0.001174 0.001276 -0.129217 -0.991615 0.000000
0.009136 -0.029997 0.040086 0.291643 -0.922481 0.252929 0.000000
-0.020318 -0.024276 0.039191 -0.557937 -0.790325 0.253166 0.000000
-0.009994 -0.009788 0.004050 -0.259789 -0.379347 -0.888035 0.000000
0.027137 -0.007062 0.049218 0.901947 -0.129215 0.412062 0.000000
-0.007067 0.026150 0.051094 -0.173535 0.790325 0.587599 0.000000
-0.015928 0.024394 0.047625 -0.463897 0.790326 0.400231 0.000000
0.015676 0.014936 0.008953 0.501674 0.379344 -0.777445 0.000000
-0.000468 -0.031963 0.036542 -0.000169 -0.991270 0.131846 0.000000
-0.022865 -0.009227 0.053734 -0.700558 -0.379344 0.604415 0.000000
-0.031512 0.006502 0.029316 -0.976777 0.129710 -0.170532 0.000000
-0.001770 0.011291 0.063237 -0.001188 0.379344 0.925255 0.000000
0.013544 0.008257 0.061555 0.535512 0.129218 0.834583 0.000000
-0.011696 0.029040 0.042603 -0.292292 0.922481 0.252179 0.000000
0.018376 -0.008755 0.058106 0.499675 -0.379344 0.778731 0.000000
-0.025769 -0.010101 0.016207 -0.699001 -0.379346 -0.606213 0.000000
0.001826 0.001422 0.065242 -0.001275 0.129217 0.991616 0.000000
0.027475 -0.006410 0.017341 0.903004 -0.129216 -0.409741 0.000000
0.005984 -0.026732 0.049905 0.172025 -0.790325 0.588042 0.000000
0.010017 -0.026304 0.048499 0.330876 -0.790324 0.515663 0.000000
0.025889 -0.000557 0.013643 0.750803 -0.129216 -0.647763 0.000000
-0.029992 -0.010866 0.037431 -0.910605 -0.380764 0.160678 0.000000
-0.005980 -0.019864 0.008558 -0.223595 -0.604831 -0.764320 0.000000
0.010337 0.030907 0.036002 0.376513 0.923349 0.075258 0.000000
-0.022861 0.014030 0.051063 -0.700557 0.379345 0.604414 0.000000
0.016201 0.027993 0.027045 0.596970 0.792484 -0.124886 0.000000
-0.015391 0.020535 0.052915 -0.431784 0.604830 0.669136 0.000000
-0.020608 0.022825 0.044046 -0.725190 0.604831 0.329058 0.000000
0.015027 0.021364 0.013642 0.431784 0.604830 -0.669136 0.000000
0.030154 -0.009873 0.027177 0.910605 -0.380764 -0.160678 0.000000
0.017228 -0.019990 0.051409 0.601620 -0.604832 0.521759 0.000000
-0.026053 0.003157 0.014232 -0.749136 0.129215 -0.649691 0.000000
-0.014862 0.009136 0.060446 -0.501674 0.379344 0.777445 0.000000
0.032285 0.001836 0.031480 0.981549 0.129262 -0.140898 0.000000
-0.008650 0.005070 0.063565 -0.280865 0.129217 0.951009 0.000000
0.016267 -0.022340 0.049793 0.601620 -0.604832 0.521759 0.000000
0.016465 0.028392 0.031934 0.470366 0.880910 -0.052477 0.000000
-0.032608 -0.001138 0.034131 -0.976913 -0.129736 0.169736 0.000000
0.013828 -0.014437 0.007781 0.501674 -0.379346 -0.777445 0.000000
-0.016079 0.012413 0.007981 -0.499676 0.379343 -0.778732 0.000000
-0.004816 0.010546 0.002627 -0.259787 0.379347 -0.888035 0.000000
-0.016959 -0.021744 0.049693 -0.602959 -0.604831 0.520210 0.000000
0.026746 0.009506 0.048959 0.841587 0.379346 0.384484 0.000000
0.013444 -0.029476 0.033507 0.362943 -0.923777 0.122101 0.000000
-0.019444 0.006702 0.057999 -0.537656 0.129218 0.833204 0.000000
0.005739 0.024096 0.011794 0.173538 0.790326 -0.587596 0.000000
-0.016329 -0.022395 0.049665 -0.602960 -0.604831 0.520210 0.000000
0.003673 -0.021041 0.008762 0.001023 -0.604833 -0.796352 0.000000
-0.023507 -0.016476 0.048227 -0.602959 -0.604831 0.520210 0.000000
0.006789 -0.019875 0.057240 0.223595 -0.604831 0.764320 0.000000
-0.002943 0.022577 0.009508 0.001023 0.604831 -0.796353 0.000000
-0.031701 0.005818 0.036024 -0.978340 0.072702 0.193820 0.000000
0.000113 0.022627 0.009550 0.001023 0.604831 -0.796353 0.000000
-0.031396 0.006496 0.028416 -0.967646 0.214269 -0.133229 0.000000
0.008965 -0.007757 0.063034 0.278420 -0.129216 0.951728 0.000000
0.026832 0.008575 0.049689 0.841587 0.379346 0.384484 0.000000
0.020936 0.023153 0.023322 0.725190 0.604831 -0.329058 0.000000
0.019669 0.024936 0.040265 0.557284 0.790325 0.254599 0.000000
0.027151 -0.001712 0.050724 0.749134 -0.129214 0.649694 0.000000
-0.022618 0.019018 0.019448 -0.724343 0.604831 -0.330918 0.000000
0.011699 0.029668 0.025740 0.292292 0.922481 -0.252179 0.000000
0.026769 -0.006789 0.015905 0.903004 -0.129216 -0.409741 0.000000
0.018308 -0.026734 0.032846 0.591535 -0.796500 -0.125201 0.000000
0.007723 -0.012858 0.061346 0.259789 -0.379346 0.888035 0.000000
0.000319 0.018510 0.006423 0.001026 0.604833 -0.796352 0.000000
0.012133 -0.006041 0.003711 0.280864 -0.129218 -0.951009 0.000000
0.001076 -0.001527 0.065157 -0.001275 -0.129218 0.991615 0.000000
-0.027501 -0.015488 0.040594 -0.910605 -0.380764 0.160678 0.000000
0.017065 -0.025043 0.022073 0.557937 -0.790325 -0.253166 0.000000
0.007389 -0.031393 0.035630 0.119924 -0.991270 0.054788 0.000000
-0.009084 -0.021947 0.011114 -0.223595 -0.604831 -0.764320 0.000000
0.012445 0.024158 0.051061 0.330877 0.790325 0.515662 0.000000
-0.003177 -0.004859 0.064717 -0.001276 -0.129217 0.991615 0.000000
0.011936 0.024897 0.050256 0.330877 0.790325 0.515662 0.000000
0.029964 -0.010806 0.028311 0.910605 -0.380764 -0.160678 0.000000
-0.021961 0.010244 0.054483 -0.700557 0.379345 0.604414 0.000000
0.029721 0.011885 0.028690 0.913979 0.379983 -0.142322 0.000000
-0.012610 0.015936 0.058581 -0.501674 0.379344 0.777445 0.000000
-0.024162 -0.018513 0.043139 -0.725190 -0.604831 0.329058 0.000000
0.024449 0.001896 0.012132 0.750803 0.129219 -0.647763 0.000000
0.017787 -0.025953 0.040924 0.597332 -0.792380 0.123809 0.000000
-0.016941 0.016265 0.010411 -0.499674 0.379345 -0.778732 0.000000
-0.030721 -0.006522 0.025212 -0.976744 -0.129713 -0.170719 0.000000
-0.030693 0.009144 0.027262 -0.910587 0.380685 -0.160968 0.000000
-0.001550 -0.032244 0.033026 -0.119924 -0.991270 -0.054788 0.000000
0.030883 0.010243 0.037483 0.976777 0.129710 0.170532 0.000000
-0.012565 -0.010880 0.005243 -0.499676 -0.379344 -0.778731 0.000000
0.021719 -0.005251 0.056284 0.749136 -0.129218 0.649691 0.000000
-0.030442 -0.006627 0.023921 -0.901947 -0.129215 -0.412062 0.000000
-0.016108 0.028105 0.027819 -0.557284 0.790325 -0.254599 0.000000
-0.000366 0.013286 0.062421 -0.001188 0.379344 0.925255 0.000000
-0.007955 0.022341 0.010666 -0.223595 0.604831 -0.764320 0.000000
0.030815 -0.008360 0.038209 0.914143 -0.379843 0.141641 0.000000
-0.027104 0.017631 0.028729 -0.869165 0.480934 -0.115132 0.000000
0.027929 0.014948 0.040688 0.910587 0.380685 0.160968 0.000000
-0.027453 0.016136 0.040841 -0.842573 0.379345 0.382320 0.000000
0.010250 0.012125 0.004896 0.262070 0.379344 -0.887365 0.000000
0.019647 0.025037 0.041478 0.599644 0.791982 0.114851 0.000000
0.012691 -0.002523 0.003398 0.280864 -0.129218 -0.951009 0.000000
-0.005559 -0.018096 0.007035 -0.223595 -0.604831 -0.764320 0.000000
0.028143 -0.013752 0.024973 0.910605 -0.380764 -0.160678 0.000000
-0.024136 0.016774 0.047391 -0.725190 0.604831 0.329058 0.000000
-0.011912 0.003860 0.062766 -0.280865 0.129217 0.951009 0.000000
0.025597 0.014739 0.046309 0.841587 0.379346 0.384484 0.000000
-0.025933 -0.004577 0.051547 -0.750803 -0.129217 0.647763 0.000000
-0.001225 -0.026157 0.051646 -0.000789 -0.790325 0.612688 0.000000
0.001702 0.032433 0.036757 0.037019 0.991270 0.126543 0.000000
0.023473 -0.021728 0.038303 0.702335 -0.706375 0.088094 0.000000
0.015992 0.007847 0.060046 0.535513 0.129217 0.834583 0.000000
-0.023016 0.006233 0.054707 -0.750802 0.129217 0.647765 0.000000
-0.017503 0.021311 0.050195 -0.602960 0.604831 0.520211 0.000000
-0.020853 0.023975 0.025385 -0.557285 0.790325 -0.254598 0.000000
-0.015230 0.028988 0.035159 -0.470366 0.880910 0.052477 0.000000
0.000872 -0.031465 0.040283 -0.000169 -0.991270 0.131846 0.000000
0.018908 -0.006751 0.007788 0.537656 -0.129219 -0.833204 0.000000
0.026101 -0.014077 0.045326 0.841587 -0.379346 0.384484 0.000000
0.011880 -0.026783 0.046571 0.330876 -0.790325 0.515662 0.000000
-0.002652 0.005793 0.064667 -0.001275 0.129217 0.991616 0.000000
-0.027649 -0.002390 0.049585 -0.903004 -0.129217 0.409741 0.000000
0.019571 0.017934 0.051719 0.601620 0.604832 0.521759 0.000000
-0.001018 0.029088 0.018020 0.000497 0.922481 -0.386042 0.000000
-0.018182 -0.012435 0.009605 -0.499675 -0.379343 -0.778732 0.000000
-0.011356 -0.014275 0.006365 -0.259787 -0.379345 -0.888036 0.000000
-0.009942 -0.029068 0.042551 -0.292292 -0.922481 0.252179 0.000000
0.028140 -0.002501 0.017577 0.903004 -0.129217 -0.409741 0.000000
0.010627 0.030550 0.037446 0.351133 0.922481 0.160417 0.000000
0.002217 0.031075 0.043053 0.108389 0.922481 0.370513 0.000000
-0.000653 0.032408 0.028779 -0.037019 0.991270 -0.126543 0.000000
0.005894 -0.030279 0.042140 0.208478 -0.922481 0.324908 0.000000
0.027095 0.015443 0.023724 0.842573 0.379344 -0.382321 0.000000
-0.030665 0.010571 0.030477 -0.910587 0.380685 -0.160968 0.000000
0.012605 0.005994 0.003770 0.280865 0.129218 -0.951009 0.000000
-0.009391 0.030118 0.041329 -0.292291 0.922481 0.252179 0.000000
0.016354 -0.025616 0.022296 0.557937 -0.790325 -0.253166 0.000000
0.004594 0.009215 0.064049 0.259789 0.379345 0.888036 0.000000
-0.023889 -0.012386 0.015469 -0.699000 -0.379344 -0.606215 0.000000
-0.025448 -0.006110 0.051804 -0.750803 -0.129217 0.647763 0.000000
0.022806 0.010222 0.053514 0.699001 0.379344 0.606214 0.000000
-0.002273 0.007866 0.064397 -0.001276 0.129218 0.991615 0.000000
0.025606 -0.016186 0.021808 0.725190 -0.604831 -0.329058 0.000000
0.020854 -0.013733 0.053230 0.699000 -0.379344 0.606215 0.000000
0.032124 0.001424 0.037580 0.987555 -0.068812 0.141418 0.000000
0.007904 -0.030711 0.027140 0.292292 -0.922481 -0.252179 0.000000
-0.014242 0.028122 0.023787 -0.557285 0.790325 -0.254598 0.000000
0.000954 -0.030614 0.022817 0.109344 -0.922481 -0.370234 0.000000
-0.000285 0.007375 0.001577 0.001276 0.129217 -0.991615 0.000000
0.028181 -0.010784 0.044022 0.841587 -0.379346 0.384484 0.000000
0.030436 0.009840 0.039225 0.967646 0.214269 0.133229 0.000000
0.003384 -0.019431 0.058513 -0.001026 -0.604831 0.796353 0.000000
-0.002162 -0.001547 0.065150 -0.001275 -0.129218 0.991615 0.000000
-0.016323 -0.025642 0.022328 -0.557285 -0.790325 -0.254598 0.000000
0.004409 -0.001852 0.000935 0.001276 -0.129217 -0.991615 0.000000
-0.013631 0.016132 0.057827 -0.501674 0.379344 0.777445 0.000000
-0.028904 -0.004468 0.019878 -0.901947 -0.129216 -0.412060 0.000000
-0.030295 -0.001549 0.022007 -0.901947 -0.129216 -0.412060 0.000000
0.004828 -0.031798 0.033906 0.119924 -0.991270 0.054788 0.000000
0.019759 0.025195 0.039442 0.587611 0.798884 0.128443 0.000000
0.002348 0.030538 0.021687 0.109342 0.922481 -0.370235 0.000000
0.016611 0.021461 0.051045 0.601620 0.604832 0.521759 0.000000
-0.002773 0.028526 0.049167 -0.173535 0.790325 0.587599 0.000000
0.003595 -0.005984 0.001472 0.001276 -0.129217 -0.991615 0.000000
-0.002370 0.002705 0.065070 -0.001276 0.129218 0.991615 0.000000
0.023398 0.022906 0.033850 0.699094 0.709626 0.087746 0.000000
0.002468 -0.021827 0.009357 0.001023 -0.604833 -0.796352 0.000000
0.020144 -0.024194 0.026211 0.557937 -0.790325 -0.253166 0.000000
-0.022804 0.012117 0.052330 -0.700557 0.379345 0.604414 0.000000
-0.007513 0.031939 0.035284 -0.120064 0.991270 0.054480 0.000000
-0.008924 0.031603 0.031518 -0.376513 0.923349 -0.075258 0.000000
-0.011666 0.009824 0.061711 -0.262071 0.379346 0.887365 0.000000
0.001240 0.031990 0.040361 0.037019 0.991270 0.126543 0.000000
0.004179 0.018657 0.006637 0.225560 0.604833 -0.763741 0.000000
0.021129 -0.020449 0.046247 0.724342 -0.604831 0.330920 0.000000
0.026187 0.017383 0.041769 0.724341 0.604832 0.330920 0.000000
-0.004094 0.008597 0.001732 0.001276 0.129217 -0.991616 0.000000
-0.014285 -0.005030 0.061505 -0.537656 -0.129219 0.833204 0.000000
-0.007424 0.016431 0.005904 -0.259787 0.379347 -0.888035 0.000000
0.006840 -0.015896 0.060373 0.223595 -0.604831 0.764320 0.000000
0.012490 0.017427 0.008447 0.431784 0.604831 -0.669135 0.000000
0.003841 0.001491 0.065236 -0.001275 0.129217 0.991616 0.000000
0.021136 0.013328 0.012540 0.700557 0.379344 -0.604416 0.000000
-0.024750 0.020182 0.039135 -0.783590 0.606353 0.135361 0.000000
0.019629 -0.005906 0.008122 0.537656 -0.129219 -0.833204 0.000000
-0.023608 0.021556 0.039588 -0.783590 0.606353 0.135361 0.000000
-0.020627 -0.021355 0.045894 -0.602959 -0.604831 0.520210 0.000000
0.013185 -0.028919 0.038111 0.351134 -0.922481 0.160416 0.000000
0.026742 -0.011920 0.019986 0.842572 -0.379345 -0.382321 0.000000
-0.010243 0.002715 0.063415 -0.280865 0.129218 0.951009 0.000000
0.007761 -0.018998 0.008395 0.225561 -0.604830 -0.763743 0.000000
0.010237 0.011354 0.061484 0.259789 0.379345 0.888036 0.000000
-0.004205 -0.031835 0.033417 -0.139257 -0.990189 0.011559 0.000000
0.004236 0.032220 0.036781 0.099606 0.991270 0.086384 0.000000
0.004394 0.031754 0.025587 0.209313 0.922481 -0.324373 0.000000
-0.018613 0.027163 0.032741 -0.596970 0.792484 0.124886 0.000000
0.016091 0.007537 0.060031 0.535512 0.129218 0.834583 0.000000
0.025508 -0.012399 0.017743 0.842572 -0.379345 -0.382321 0.000000
-0.012439 -0.004070 0.003523 -0.278420 -0.129216 -0.951728 0.000000
0.001987 -0.031804 0.037352 0.071202 -0.991270 0.110967 0.000000
0.018540 -0.018441 0.014344 0.602959 -0.604831 -0.520210 0.000000
0.004456 0.029976 0.045135 0.108389 0.922481 0.370513 0.000000
0.005207 0.029185 0.019162 0.109344 0.922481 -0.370234 0.000000
-0.011398 -0.027123 0.019637 -0.462867 -0.790325 -0.401424 0.000000
-0.011522 -0.020961 0.054537 -0.431783 -0.604831 0.669136 0.000000
-0.028434 -0.014932 0.036279 -0.871424 -0.476952 0.114613 0.000000
0.002040 0.025905 0.013373 0.000788 0.790325 -0.612688 0.000000
0.012686 0.022035 0.053304 0.430064 0.604831 0.670243 0.000000
0.024415 -0.020990 0.036709 0.702335 -0.706375 0.088094 0.000000
0.001112 0.016356 0.061164 -0.001188 0.379344 0.925255 0.000000
0.024310 -0.019952 0.040240 0.783841 -0.606198 0.134601 0.000000
0.028419 -0.013879 0.038870 0.914143 -0.379843 0.141641 0.000000
-0.019349 -0.025876 0.033730 -0.591535 -0.796500 0.125201 0.000000
0.008821 -0.009163 0.003440 0.262071 -0.379344 -0.887365 0.000000
-0.017024 -0.021638 0.049741 -0.602960 -0.604831 0.520210 0.000000
0.014938 -0.028556 0.035951 0.474409 -0.878720 0.052797 0.000000
0.025112 -0.003688 0.052682 0.749134 -0.129214 0.649694 0.000000
-0.007315 0.021989 0.010200 -0.223595 0.604831 -0.764320 0.000000
0.011286 -0.006001 0.003455 0.280865 -0.129217 -0.951009 0.000000
-0.006153 -0.030795 0.040505 -0.209312 -0.922481 0.324372 0.000000
0.020686 -0.021720 0.021135 0.725190 -0.604831 -0.329058 0.000000
-0.027880 0.006115 0.017985 -0.901948 0.129215 -0.412061 0.000000
0.003661 -0.007277 0.001640 0.001276 -0.129217 -0.991615 0.000000
0.002822 0.022450 0.056631 -0.001026 0.604833 0.796352 0.000000
0.014780 -0.015598 0.057079 0.499675 -0.379343 0.778732 0.000000
-0.019476 0.026378 0.032654 -0.587611 0.798884 -0.128443 0.000000
-0.029887 0.004381 0.044195 -0.903004 0.129217 0.409741 0.000000
0.017624 0.013791 0.056399 0.499676 0.379343 0.778732 0.000000
-0.019392 0.023331 0.045657 -0.602960 0.604832 0.520210 0.000000
-0.025371 -0.009186 0.050854 -0.700558 -0.379344 0.604415 0.000000
-0.024497 0.016443 0.047051 -0.842573 0.379344 0.382321 0.000000
0.028993 -0.007517 0.045013 0.901947 -0.129217 0.412061 0.000000
-0.028141 0.015388 0.038918 -0.869287 0.481002 0.113921 0.000000
0.030209 -0.006865 0.023514 0.903004 -0.129216 -0.409741 0.000000
-0.001399 -0.029398 0.020055 0.000497 -0.922481 -0.386042 0.000000
-0.030252 0.005109 0.022860 -0.901948 0.129215 -0.412061 0.000000
0.023779 0.007145 0.053640 0.749134 0.129218 0.649694 0.000000
0.000427 0.021069 0.057677 -0.001026 0.604833 0.796352 0.000000
0.019095 -0.022916 0.045815 0.462867 -0.790325 0.401422 0.000000
0.032237 0.001359 0.038149 0.976744 -0.129713 0.170719 0.000000
-0.006890 0.022164 0.010215 -0.223595 0.604831 -0.764320 0.000000
-0.001284 0.032870 0.034212 0.037019 0.991270 0.126543 0.000000
-0.007333 0.000888 0.064523 -0.280865 0.129218 0.951009 0.000000
0.022742 0.023162 0.037002 0.699094 0.709626 0.087746 0.000000
-0.029327 0.010044 0.042757 -0.842573 0.379344 0.382321 0.000000
0.013491 -0.018630 0.010670 0.431783 -0.604831 -0.669136 0.000000
0.005565 -0.031659 0.032121 0.139256 -0.990183 0.012022 0.000000
0.029379 -0.002007 0.045896 0.901947 -0.129215 0.412062 0.000000
0.026330 -0.012127 0.019285 0.842573 -0.379344 -0.382320 0.000000
-0.029200 0.012693 0.038540 -0.913979 0.379983 0.142322 0.000000
-0.025783 -0.008515 0.015231 -0.699001 -0.379346 -0.606213 0.000000
-0.031481 -0.007299 0.034869 -0.968675 -0.209816 0.132840 0.000000
0.000670 0.011601 0.002931 0.001191 0.379346 -0.925254 0.000000
0.017075 0.016873 0.010905 0.431784 0.604830 -0.669136 0.000000
0.024391 0.001653 0.012017 0.750802 0.129216 -0.647765 0.000000
0.031755 -0.002278 0.027635 0.987736 -0.068825 -0.140145 0.000000
0.007400 -0.018048 0.007536 0.225561 -0.604830 -0.763743 0.000000
0.019098 -0.024108 0.042402 0.557285 -0.790325 0.254598 0.000000
-0.025556 0.006692 0.051671 -0.750802 0.129217 0.647765 0.000000
-0.006517 -0.007758 0.002292 -0.278420 -0.129216 -0.951728 0.000000
-0.022023 0.004089 0.009771 -0.749133 0.129218 -0.649694 0.000000
0.011010 0.027465 0.047246 0.462866 0.790325 0.401424 0.000000
0.026851 0.017072 0.025140 0.783590 0.606354 -0.135361 0.000000
-0.015912 -0.011050 0.007474 -0.499676 -0.379344 -0.778731 0.000000
-0.030844 0.004543 0.042035 -0.903004 0.129216 0.409741 0.000000
0.011909 -0.027768 0.044548 0.462867 -0.790325 0.401422 0.000000
0.019011 -0.008100 0.008033 0.501674 -0.379346 -0.777445 0.000000
-0.029588 -0.009061 0.042619 -0.842573 -0.379344 0.382320 0.000000
-0.026993 -0.016659 0.026065 -0.871301 -0.476885 -0.115824 0.000000
0.004264 -0.027096 0.016122 0.173539 -0.790325 -0.587598 0.000000
-0.019770 0.022480 0.046209 -0.602960 0.604832 0.520210 0.000000
-0.007228 0.013659 0.061382 -0.262071 0.379346 0.887365 0.000000
0.031143 -0.006600 0.027652 0.976913 -0.129736 -0.169736 0.000000
-0.006013 0.023426 0.055070 -0.173535 0.790325 0.587599 0.000000
-0.027465 -0.017317 0.032326 -0.871301 -0.476885 -0.115824 0.000000
0.009500 -0.020645 0.010212 0.225561 -0.604830 -0.763743 0.000000
0.010460 0.000319 0.063680 0.278421 0.129216 0.951727 0.000000
-0.005834 -0.000436 0.001098 -0.278422 -0.129218 -0.951727 0.000000
0.008527 0.012825 0.061356 0.259789 0.379345 0.888036 0.000000
-0.003253 0.002579 0.000948 0.001276 0.129217 -0.991616 0.000000
-0.009572 -0.022186 0.054687 -0.431783 -0.604831 0.669136 0.000000
-0.003638 -0.003366 0.064911 -0.001275 -0.129218 0.991615 0.000000
-0.025286 0.013285 0.048720 -0.700557 0.379344 0.604416 0.000000
-0.009289 0.003958 0.002513 -0.278420 0.129218 -0.951727 0.000000
-0.013371 -0.022509 0.051944 -0.431783 -0.604831 0.669136 0.000000
-0.012771 0.024045 0.015017 -0.330876 0.790325 -0.515663 0.000000
-0.002189 0.020152 0.058370 -0.001026 0.604833 0.796352 0.000000
-0.020042 -0.023739 0.041479 -0.557936 -0.790325 0.253166 0.000000
0.001456 0.027609 0.050476 -0.000788 0.790325 0.612688 0.000000
-0.030541 -0.009077 0.038249 -0.927791 -0.346102 0.139344 0.000000
-0.005478 0.029915 0.044981 -0.109344 0.922481 0.370234 0.000000
0.022089 0.013536 0.052268 0.699000 0.379345 0.606215 0.000000
0.003667 0.009430 0.002045 0.001191 0.379346 -0.925254 0.000000
-0.023367 -0.020603 0.024976 -0.724342 -0.604831 -0.330920 0.000000
0.012435 -0.029187 0.027830 0.351544 -0.922481 -0.159516 0.000000
-0.003363 0.000800 0.000716 0.001276 0.129217 -0.991615 0.000000
0.022799 -0.012310 0.051877 0.699000 -0.379344 0.606215 0.000000
0.016273 0.025285 0.020578 0.463897 0.790326 -0.400231 0.000000
-0.020126 -0.004261 0.008178 -0.535513 -0.129218 -0.834583 0.000000
0.014595 -0.023674 0.049510 0.462867 -0.790325 0.401424 0.000000
-0.010520 -0.019198 0.056674 -0.225561 -0.604830 0.763743 0.000000
0.006861 -0.012703 0.004375 0.262069 -0.379346 -0.887365 0.000000
0.016568 -0.027820 0.032481 0.474428 -0.878755 -0.052041 0.000000
0.031374 -0.001021 0.024333 0.987736 -0.068825 -0.140145 0.000000
0.019134 -0.025962 0.031911 0.599055 -0.792145 -0.116787 0.000000
-0.017617 -0.004320 0.059465 -0.537656 -0.129218 0.833204 0.000000
0.030953 -0.009364 0.030501 0.910605 -0.380764 -0.160678 0.000000
0.020222 0.006456 0.057547 0.535512 0.129218 0.834583 0.000000
0.002294 0.016575 0.004972 0.001188 0.379344 -0.925255 0.000000
-0.020652 0.009179 0.056669 -0.700557 0.379344 0.604416 0.000000
-0.006770 -0.027090 0.016665 -0.330876 -0.790325 -0.515662 0.000000
-0.022159 -0.010381 0.012220 -0.699001 -0.379346 -0.606213 0.000000
-0.004355 -0.004223 0.064799 -0.001275 -0.129218 0.991615 0.000000
-0.019568 0.022468 0.046455 -0.602960 0.604831 0.520211 0.000000
-0.012683 0.022737 0.052672 -0.431784 0.604830 0.669136 0.000000
0.004455 -0.031364 0.039697 0.071202 -0.991270 0.110967 0.000000
0.007515 0.021110 0.009566 0.225557 0.604830 -0.763744 0.000000
-0.003626 0.032190 0.028210 -0.099606 0.991270 -0.086384 0.000000
-0.020692 0.015967 0.052361 -0.700557 0.379345 0.604414 0.000000
-0.015049 0.023463 0.015586 -0.330876 0.790325 -0.515662 0.000000
-0.008294 -0.006462 0.002636 -0.278422 -0.129218 -0.951727 0.000000
-0.030887 0.005425 0.041008 -0.981549 0.129262 0.140898 0.000000
0.019386 0.001737 0.058815 0.535513 0.129217 0.834583 0.000000
-0.017891 -0.026182 0.038591 -0.557937 -0.790325 0.253166 0.000000
0.029214 0.012630 0.039448 0.925857 0.350241 0.141845 0.000000
-0.031026 0.007571 0.038638 -0.967815 0.214307 0.131933 0.000000
0.022989 -0.017186 0.018040 0.602959 -0.604831 -0.520210 0.000000
-0.022212 0.016631 0.050178 -0.602960 0.604832 0.520210 0.000000
0.030890 -0.006759 0.039683 0.976744 -0.129713 0.170719 0.000000
0.009132 -0.017980 0.058053 0.223595 -0.604831 0.764320 0.000000
-0.009895 0.024924 0.051529 -0.332199 0.790325 0.514810 0.000000
0.008480 -0.017710 0.058458 0.223595 -0.604831 0.764320 0.000000
-0.023973 0.022192 0.034632 -0.783590 0.606353 0.135361 0.000000
0.024049 -0.020225 0.040527 0.783841 -0.606198 0.134601 0.000000
0.009002 -0.021332 0.055439 0.223595 -0.604831 0.764320 0.000000
0.004421 -0.003159 0.064949 -0.001276 -0.129217 0.991615 0.000000
0.021758 0.006791 0.009989 0.750802 0.129216 -0.647765 0.000000
0.022609 -0.003386 0.055628 0.749134 -0.129214 0.649694 0.000000
-0.020603 -0.014575 0.013051 -0.699000 -0.379344 -0.606215 0.000000
-0.007092 -0.004422 0.064040 -0.280865 -0.129217 0.951009 0.000000
-0.006567 -0.023369 0.054253 -0.173535 -0.790326 0.587597 0.000000
-0.031477 -0.007699 0.034274 -0.968675 -0.209816 0.132840 0.000000
0.004554 -0.023285 0.054956 0.172026 -0.790325 0.588042 0.000000
0.010496 0.029484 0.042369 0.291642 0.922481 0.252929 0.000000
0.024025 0.022296 0.032252 0.699157 0.709689 -0.086723 0.000000
-0.003901 -0.031359 0.040100 -0.071488 -0.991270 0.110783 0.000000
0.003619 -0.023110 0.010570 0.173539 -0.790325 -0.587598 0.000000
0.012144 -0.029523 0.029132 0.351545 -0.922481 -0.159515 0.000000
0.020537 0.010110 0.056201 0.699000 0.379345 0.606215 0.000000
0.031627 -0.002040 0.026956 0.976913 -0.129736 -0.169736 0.000000
-0.004936 0.030290 0.021779 -0.208478 0.922481 -0.324908 0.000000
-0.007066 -0.015599 0.005676 -0.259787 -0.379345 -0.888036 0.000000
-0.017131 -0.005767 0.006489 -0.535513 -0.129218 -0.834583 0.000000
0.011039 0.021596 0.010991 0.225560 0.604833 -0.763741 0.000000
0.026197 -0.001923 0.014272 0.750801 -0.129219 -0.647765 0.000000
-0.008899 0.009881 0.003537 -0.259787 0.379347 -0.888035 0.000000
-0.003561 -0.021978 0.009464 0.001023 -0.604833 -0.796352 0.000000
0.011920 -0.024754 0.049654 0.330876 -0.790324 0.515663 0.000000
-0.007817 0.031127 0.039463 -0.292292 0.922481 0.252179 0.000000
0.005998 0.029943 0.021282 0.109344 0.922481 -0.370234 0.000000
0.026682 -0.013142 0.021068 0.842572 -0.379345 -0.382321 0.000000
-0.026096 0.019325 0.030734 -0.789318 0.598968 -0.134961 0.000000
-0.001170 -0.007964 0.064379 -0.001188 -0.379346 0.925254 0.000000
0.030796 -0.005183 0.041418 0.976744 -0.129713 0.170719 0.000000
-0.001482 -0.019137 0.007309 0.001023 -0.604833 -0.796352 0.000000
-0.012631 -0.029269 0.028728 -0.351133 -0.922481 -0.160418 0.000000
0.018877 0.020179 0.016124 0.602960 0.604831 -0.520211 0.000000
-0.028843 -0.006209 0.045748 -0.903004 -0.129217 0.409741 0.000000
-0.013828 -0.028031 0.041807 -0.463897 -0.790325 0.400232 0.000000
-0.018815 0.017520 0.053080 -0.602960 0.604832 0.520210 0.000000
0.011746 0.006508 0.003587 0.280864 0.129217 -0.951009 0.000000
-0.021580 -0.008984 0.055376 -0.700556 -0.379345 0.604415 0.000000
0.003656 0.029067 0.018408 0.109344 0.922481 -0.370234 0.000000
-0.019267 0.012626 0.010130 -0.499674 0.379345 -0.778732 0.000000
0.023649 -0.006003 0.053909 0.749136 -0.129218 0.649691 0.000000
0.030807 -0.002942 0.043061 0.976744 -0.129713 0.170719 0.000000
-0.019926 -0.025463 0.032301 -0.597332 -0.792380 -0.123809 0.000000
-0.026801 0.012258 0.019919 -0.841587 0.379346 -0.384484 0.000000
-0.005565 -0.010694 0.003141 -0.259787 -0.379345 -0.888036 0.000000
0.029379 -0.009090 0.043070 0.841587 -0.379346 0.384484 0.000000
0.023807 0.018363 0.045189 0.724341 0.604832 0.330920 0.000000
0.017219 0.027928 0.030919 0.470366 0.880910 -0.052477 0.000000
-0.002098 -0.028120 0.049037 -0.000497 -0.922481 0.386042 0.000000
-0.023759 -0.016505 0.018344 -0.724342 -0.604831 -0.330920 0.000000
-0.013487 0.022286 0.052560 -0.431784 0.604830 0.669136 0.000000
0.024380 0.004814 0.012634 0.750803 0.129219 -0.647763 0.000000
-0.007991 0.011491 0.003959 -0.259787 0.379347 -0.888035 0.000000
-0.017880 -0.023250 0.046552 -0.463897 -0.790325 0.400232 0.000000
0.023310 -0.016860 0.048025 0.601620 -0.604832 0.521759 0.000000
0.024648 -0.014268 0.048318 0.841587 -0.379346 0.384484 0.000000
0.031303 0.004358 0.026958 0.981549 0.129262 -0.140898 0.000000
0.030770 -0.001775 0.023144 0.903004 -0.129217 -0.409741 0.000000
-0.006687 -0.003198 0.001722 -0.278422 -0.129218 -0.951727 0.000000
-0.002891 -0.008258 0.064256 -0.001188 -0.379346 0.925254 0.000000
0.003699 -0.030714 0.042169 0.108391 -0.922481 0.370513 0.000000
-0.023877 0.018166 0.020648 -0.724343 0.604831 -0.330918 0.000000
-0.011966 0.023945 0.014347 -0.330876 0.790325 -0.515662 0.000000
0.028854 0.003583 0.046721 0.901948 0.129215 0.412061 0.000000
-0.025718 -0.018376 0.039437 -0.792365 -0.595543 0.132235 0.000000
-0.012819 -0.012616 0.059801 -0.501674 -0.379346 0.777445 0.000000
-0.006415 0.026835 0.050366 -0.173539 0.790327 0.587596 0.000000
-0.027403 -0.007577 0.048490 -0.903004 -0.129217 0.409741 0.000000
0.008298 -0.016842 0.006846 0.225556 -0.604833 -0.763742 0.000000
-0.010082 0.026056 0.016373 -0.330876 0.790325 -0.515662 0.000000
-0.031470 -0.007831 0.035567 -0.976913 -0.129736 0.169736 0.000000
0.020765 0.014693 0.012966 0.700557 0.379344 -0.604416 0.000000
0.016335 0.011738 0.058226 0.499676 0.379343 0.778732 0.000000
-0.009372 0.028670 0.046013 -0.209315 0.922481 0.324369 0.000000
-0.017237 -0.020019 0.014677 -0.601620 -0.604832 -0.521759 0.000000
-0.011685 -0.027555 0.045230 -0.463895 -0.790326 0.400232 0.000000
0.027085 0.008333 0.049103 0.901948 0.129215 0.412061 0.000000
0.005528 -0.020927 0.009263 0.225556 -0.604833 -0.763742 0.000000
0.007746 0.002812 0.001903 0.280865 0.129218 -0.951009 0.000000
-0.021939 0.002263 0.056747 -0.750802 0.129217 0.647765 0.000000
-0.022657 -0.011203 0.052735 -0.700556 -0.379345 0.604415 0.000000
-0.000697 0.015519 0.004536 0.001191 0.379346 -0.925254 0.000000
0.029911 0.003070 0.044567 0.901948 0.129215 0.412061 0.000000
-0.030934 0.007365 0.039647 -0.967815 0.214307 0.131933 0.000000
0.030307 0.003715 0.022564 0.903004 0.129216 -0.409741 0.000000
-0.018516 -0.025901 0.037725 -0.599055 -0.792145 0.116787 0.000000
0.003880 -0.031305 0.040645 0.108390 -0.922481 0.370514 0.000000
0.012967 0.002198 0.062692 0.278421 0.129216 0.951727 0.000000
0.026738 -0.007233 0.050037 0.901947 -0.129215 0.412062 0.000000
0.014500 -0.022406 0.051316 0.430062 -0.604831 0.670243 0.000000
0.006927 -0.014989 0.060668 0.259789 -0.379346 0.888035 0.000000
0.015052 -0.027316 0.041300 0.557285 -0.790325 0.254598 0.000000
-0.013413 0.029833 0.028828 -0.470348 0.880875 -0.053219 0.000000
0.012662 0.018022 0.009096 0.431784 0.604831 -0.669135 0.000000
0.009309 0.002143 0.002273 0.280864 0.129217 -0.951009 0.000000
-0.009461 -0.026642 0.017704 -0.330876 -0.790325 -0.515663 0.000000
0.016664 0.023858 0.018212 0.463897 0.790326 -0.400231 0.000000
0.016411 0.026788 0.024388 0.557936 0.790325 -0.253166 0.000000
-0.005810 0.029814 0.045136 -0.109344 0.922481 0.370234 0.000000
0.030646 0.010211 0.030162 0.913979 0.379983 -0.142322 0.000000
0.002894 0.024563 0.011643 0.000789 0.790325 -0.612687 0.000000
0.019520 -0.025116 0.028283 0.591535 -0.796500 -0.125201 0.000000
-0.008056 -0.024432 0.013652 -0.172026 -0.790325 -0.588042 0.000000
0.010838 0.030519 0.028880 0.351544 0.922481 -0.159516 0.000000
-0.011290 0.020372 0.055947 -0.225560 0.604833 0.763741 0.000000
-0.021668 0.011715 0.053900 -0.700557 0.379344 0.604416 0.000000
0.029326 -0.002081 0.020059 0.903004 -0.129216 -0.409741 0.000000
-0.024742 0.021592 0.032857 -0.782146 0.606621 -0.142330 0.000000
